-0.06513774633344806 -1.8895571870579677 4.319528625561485
-0.2669479496017284 -1.9577464944295244 4.367085278850222
0.910042097742355 -1.8408152356998648 4.026167905872353
-2.2293558605097488 -2.012239383282879 4.256537155100053
-0.7780920248064976 -1.9879415443904207 3.9937105957253567
-0.7684332033867317 -1.9894579730556448 3.9865552559516497
-0.7708733551476012 -1.9930614367231205 3.987026812691246
2.6696629358092454 0.645621100523838 6.193492940980072
2.7379164358292543 0.6423382605724713 6.186792877400591
2.6914040954412015 0.6405779387831735 6.1690711832739185
2.717959359905797 0.6381811948183708 6.185552179103497
2.697104185115177 0.6396456015810282 6.197089474924064
2.6041695266973934 0.6397998175997944 6.201877477946163
2.778398089647836 0.6360168549187292 6.181208788488229
2.678302282966734 0.6368794099116188 6.1934668959874655
2.461190217677381 0.6373546315876162 6.195855862096455
2.623516046326538 0.6343288505013333 6.19140442910527
2.416957766157199 0.6353587732356882 6.2156104418123785
2.296781615448047 0.6321390904213489 6.20745875528403
2.589806675528716 0.6259150705686364 6.188305305897678
2.6759881213010623 0.6237111391327165 6.183315659117045
2.6468626368691712 0.6222318603492798 6.1956434792467965
2.565915555620832 0.6188118457681155 6.187727200819201
2.362315124104807 0.6215108694849104 6.2087665194118475
2.329969833653481 0.6228770284311741 6.220855926935765
2.706650291362277 0.6149016815024041 6.189196055365581
2.6004469587734356 0.612958639666742 6.1929382893751335
2.3232941734090007 0.616215028166846 6.214743230245367
2.2760798346533395 0.6106796525145646 6.210061353649579
2.6333686347316547 0.6049912183222469 6.179000855539737
2.5802301907570415 0.6066817415241922 6.191123966612893
2.3707513828642597 0.6042211980355843 6.208136361795428
2.6438000644831354 0.598085150684134 6.1884950046295835
2.390334057961462 0.598949122165226 6.202584066894628
2.312951923533304 0.6009240710103351 6.216002132698025
2.5839274036739255 0.5957016976869861 6.194641301414425
2.645743528530577 0.5912031228886384 6.187887122978917
2.7525491160629185 0.5868001673423244 6.171141011109701
2.3250446700190683 0.5929146271230447 6.219395757619348
2.307473341572382 0.5932226010248851 6.2303762476371
2.465258621014586 0.5886502012475546 6.205973726288768
2.4121701559909074 0.5858456947939419 6.1975754964176035
1.9029199488618573 0.5887784591055574 6.226130589331412
2.7743027036524737 0.5817482155911552 6.181422871665202
2.593777657200121 0.5796102444154598 6.182118472016093
2.4731582040571136 0.582253538356137 6.220634555937801
2.703007349775446 0.5764170907214725 6.190683890147821
2.3861356777024616 0.5779156050057527 6.208520217498863
2.335346635619484 0.5765537222827586 6.211949130386425
2.7510204134884693 0.5701383005689052 6.177307807748784
2.656509091671838 0.5722287009797871 6.192833258922097
2.7187755371037583 0.5675901952715211 6.172459343644737
2.5779539510718905 0.5689413491738559 6.185426863397691
2.572333996994721 0.5702853189667719 6.197913367829692
2.4639321971396244 0.5724844852962381 6.213635485020101
2.6341046492711553 0.5686217843791496 6.205979917751278
2.6146097516065345 0.5650801334683879 6.190543664877442
2.6641465318230986 0.5630447243214965 6.190421745846911
2.350413160960225 0.5650808880763853 6.200298418277226
2.4302821279551434 0.5627507851183865 6.205108205646402
2.7573391331383412 0.5574610523065026 6.177052783783888
2.639689211311644 0.5579778501141475 6.183596660334049
2.5922023108077203 0.559365269099383 6.193817316279478
2.3807648377755712 0.5586131085742492 6.21140328808638
2.5464294066414355 0.5549746807615266 6.197881492942917
2.315804422062013 0.5570457457720707 6.211858829310355
2.5946530183153547 0.553249099995854 6.204656944102711
2.58091932864621 0.5531636283564147 6.2028545619513435
2.7809931968052806 0.5466289425218492 6.1816974895314605
2.742264128544054 0.5472347271019795 6.177115094969854
2.614182518229249 0.5453352508392536 6.179473621969947
2.7765732839254507 0.5442833879158281 6.191312728317591
2.7435244193943036 0.5401348482464392 6.170253646015851
2.5866577927059855 0.5388493433076306 6.180547983978079
2.461473714788529 0.5384156794345315 6.201751015809584
2.772135494847308 0.5269424593376295 6.176343841701523
2.68655996452395 0.5308837502198351 6.222189791099617
2.574835094205473 0.528476795500017 6.1933449369511315
2.6082721545361927 0.5274202654365326 6.196100018401447
2.633277380321812 0.517236760456281 6.1886364145229695
2.6630786339350956 0.5111999185787359 6.192776572412334
2.536494420309267 0.5102712126466976 6.2052220009753265
2.5813280788951576 0.5072240916945351 6.1985031594716675
2.4493848162240046 0.5030679383656446 6.220406301182944
2.5876668590997456 0.49987849854020083 6.19851098636358
2.6261552102860994 0.49592904196145315 6.192134702809988
2.7842663663276705 0.49459960463016334 6.193885103849958
2.4673891640962515 0.4958370701992574 6.211090105661936
1.6925586760893663 0.4094037737759151 5.1264658947938555
2.67865107854554 0.48542346352057686 6.1840848264971795
2.46685893469462 0.4864317440200778 6.198915461715726
2.4341985393017267 0.48775135914886614 6.214946415516505
2.676736549505689 0.48377702382294596 6.199412828844486
2.532853251844516 0.48361130556438536 6.196267835701152
2.3285103661980693 0.4829704776689345 6.21643827986743
2.6550527280030867 0.4784145371111919 6.184145809253993
2.387889515654868 0.46824140459102737 6.195846794528989
2.6748475344581206 0.46329676323646674 6.189924844743358
2.349324904558954 0.4610687582828865 6.214023690745647
2.616199567149233 0.457358055684473 6.199090005568911
2.342016375702072 0.4596740820059866 6.223455546772011
2.3277461518393583 0.45021970704964215 6.2086639885289285
2.6450084436303944 0.44397548224283084 6.19072024366497
2.4380427477019904 0.441524460409282 6.202635437721576
2.694739179607505 0.4314929207423563 6.200870007110003
2.5872183758634213 0.43132509482051223 6.191852461041569
2.659308561270941 0.42714999748979315 6.188998321595164
2.391323919218349 0.4270778922260214 6.210639836135333
2.3944485676318954 0.4108440638744634 6.201721640669523
2.373278072975469 0.40984968446494685 6.225573189016125
2.353931212865363 0.4086957271690433 6.208926884063337
-0.2617722150482283 0.3301094890711987 5.222207658389009
1.4210690363068803 0.31519676288805304 5.0936120541489425
-0.2706176067934699 0.3222136214040838 5.21518098317004
1.3924191640927526 0.2995399397496759 5.13932873371539
-0.2910788331284854 0.2749222003421105 5.1857746160474205
1.6824841326197293 0.21150601161073015 5.101190491007372
-0.34403487137360855 0.21187517542869286 5.155474212434819
-0.33548240740545304 0.21040761089670984 5.16404648195636
-0.34962691491088904 0.20651494948869253 5.157361465550789
1.683473274268304 0.20084514327535535 5.093499371399567
1.6670435322802166 0.19671307966462 5.092136230956003
-0.43295499289807027 0.19984582509885748 5.1731452744646
1.6501884056344394 0.19432993939104914 5.084036714884589
1.5310266381273758 0.19246476015230748 5.067099913963123
1.6659813896342872 0.18411492687822992 5.094257006658872
1.5600675442282974 0.1661438600595378 5.086372406207505
1.5620825248941743 0.16107213111148097 5.087224018695785
1.6906525949601752 0.1574893484586576 5.093410608423553
1.2699887755586339 0.05657061416885956 5.199082436910996
1.6550617695090823 -0.0015845664714357398 5.09900751372404
1.6653830081469854 -0.00838471027928333 5.087038529044386
1.61217487179403 -0.03616104572699412 5.032313389648846
1.5696925827763255 -0.07316959723841407 4.9867226683570145
1.5359425537285516 -0.0766828682034166 4.996342434368127
1.5800296162387224 -0.07826837713001905 4.9974499817213
-0.40143183504226304 -0.08039403220411745 5.097844132184957
-0.4062798429881842 -0.08230793297787879 5.0912267903488475
1.545682412788856 -0.08286399780175836 4.982846444427663
0.2657403124676686 -0.09126135477904829 5.295175784478997
0.16714149621453955 -0.08900709759813412 5.195773958831329
-0.2400044769732488 -0.10090764972330327 5.150781021732716
1.5366783652349745 -0.09932278016389458 4.993098771906407
1.1982743202358808 -0.1138298782485987 4.65166162761164
0.16501459979561797 -0.12856930143991147 5.244706822744183
0.23806308439952104 -0.13595472448560855 5.3036981173634015
-0.38881437599445134 -0.13595485636829374 5.169569143311414
1.648676929825068 -0.1497805089876015 4.977512920981955
1.7477579618415835 -0.1518074703481711 5.02240305752389
1.5635598163973428 -0.15012998770995772 4.9622187069061585
1.5659071998821317 -0.15412947116465278 4.963964652823791
1.5558569948226035 -0.16077503096681586 4.992902638005091
1.5261541475506801 -0.16243829556299463 5.010545292501982
1.6729425131242095 -0.16469056759209824 4.972230631776455
0.16195151352221157 -0.17739225516970067 5.264622237805501
2.6730457233905276 -0.2121950964852848 5.97406059589434
-0.28862303399510697 -0.18711312567523625 5.174807695337018
-0.2836617940438076 -0.19110118768608453 5.184390845650438
0.173752646086369 -0.2003620617942039 5.28430564590622
0.17561984699974822 -0.20562576114258482 5.285735648667915
0.18112629842375086 -0.2069389679934758 5.284952716730859
-0.2777231988027528 -0.20849468435425625 5.175105686521
2.9429288727086766 -0.24935950957530137 5.969547929677446
2.9257776876809776 -0.2485257218144735 5.943061755731688
-0.21219100968654894 -0.21986194560121478 5.1826322428071006
0.12109186626716757 -0.22732483967078052 5.2668333402932195
-0.359473468069083 -0.22629060641613605 5.194856476857199
-0.2747221658242651 -0.22923238983611757 5.187907440950952
-0.21225233266468357 -0.2310202304205781 5.184581862757182
-0.27661986416189793 -0.23479407358212495 5.189211880301899
1.5401665032042124 -0.225400424672267 4.965282125497216
-0.21228302091949072 -0.2366024593922377 5.185557864604018
-0.26550301717563113 -0.23676578152345873 5.1874952759482795
-0.33171361222181484 -0.23676231184847685 5.1907519654825265
1.5705111017187916 -0.2284601140096976 4.951187662427111
-0.27666256389121074 -0.24037634852579393 5.1901770548719925
0.1609941713242882 -0.25654904416693275 5.294375506393881
0.13647219966586546 -0.25767775291972767 5.287815471708072
0.06885025811818081 -0.25629026734008165 5.254617588410538
-0.23294611270245003 -0.2535110767323374 5.196846446241579
-0.24784003988090098 -0.28663303296421333 5.201213570435315
-0.3675711398909528 -0.2866947392619126 5.2049363669302
1.7214669701727185 -0.27378729351349623 4.961958796612441
1.6037657361853215 -0.2837497495360515 4.915052988853033
1.5653810582564973 -0.28621232385184076 4.935310724897319
0.19023333480289045 -0.31038813972286566 5.329252354709334
-0.2628379846968381 -0.3033320035697061 5.20690629523508
0.09376818282827339 -0.31615506670887733 5.3009671076055
-0.2684921460822865 -0.31264256713428723 5.209549377587503
-0.27739118553804065 -0.3136651522900307 5.202888602870792
1.505893913084976 -0.2991779918629189 4.950123827663966
1.5305351815490313 -0.30503658355457725 4.923147694613481
0.11443397840452417 -0.33134951496199055 5.304004042666386
0.14877236020789075 -0.3347129220599008 5.326047181138031
1.5002095859473754 -0.31262351048861753 4.942860688544064
-0.335155688597629 -0.33133122047714114 5.215792281515695
-0.2835758947446494 -0.33500418597045933 5.216110703931399
-0.32411237264659054 -0.33457942722176437 5.215232386192052
-0.31054384654853834 -0.33749175253737934 5.234630606544438
-0.07973043968067219 -0.3549140366127488 5.263466810795814
1.5554869903303294 -0.34208223598960674 4.866627688623751
0.830710380850219 -0.467489411606722 6.036695647500485
1.6579444867002764 -0.41002836458049025 4.745807428951829
1.7141161356964703 -0.4355928376647601 4.722606474722457
-0.6575066884965292 -0.5132043693568383 5.3800319674416395
-0.6773229958260102 -0.5139778946648401 5.371102957315847
-0.6836857898530333 -0.5149556679456656 5.361493083995157
-0.6741607608340651 -0.5253269711830948 5.362017602260458
-0.6935684834074144 -0.5274539858637532 5.365509986802163
-0.6508057736990995 -0.5298290846004108 5.372236897981686
-0.6642932571611012 -0.5334821422624574 5.373602622868289
-0.6719570567393695 -0.5333612876917205 5.373994100367243
-0.6782956090028307 -0.5323776050990494 5.364063678479824
-0.6821959987699486 -0.5361693200949282 5.364876554845102
0.21109543189692676 -0.5437695354461489 5.3853476598450465
1.2466345571572928 -0.4894308019974031 4.776028377487856
0.9982627729478761 -0.5041375288928113 4.899371553678785
1.3843788471341816 -0.48653781855450945 4.680842771622398
-0.23935887650012705 -0.5685796689089351 5.3815738096861505
0.9930809157063895 -0.5176953653605794 4.882532393908313
-1.6783842105774696 -0.5688721966567195 5.335354004319
1.3925056641804172 -0.5018052085709498 4.6696316677996395
1.7977416809336346 -0.5155277608109433 4.640891725769491
1.561113372919615 -0.516301332496647 4.61240394208113
1.1157271166277776 -0.537525834828363 4.6844549706675895
1.0729660516870632 -0.6246893532466958 4.685123238521224
1.5763083618255043 -0.7691425879207613 4.928777312650832
-0.7527171498596175 -0.898153130746698 5.699063425994419
-0.7770084924389866 -0.8996241438813855 5.699481864524064
1.5601443129132664 -0.7823138572400045 4.948917954040769
-1.6097182078076182 -0.8347926208953883 5.259268542254453
-0.7610256052147458 -0.9082731361097054 5.700849066870018
1.56320389759147 -0.787611898422361 4.947522010984143
-1.8357367110000313 -0.7819900571337459 4.822010105471509
-1.8404568780418664 -0.7850612577118851 4.8210157471945045
1.5591044898214625 -0.8135157717454642 4.962608225170896
-0.6053391429591845 -0.9434889563152775 5.695038284893601
-1.8146776928266544 -0.8148559629773823 4.875028446361973
-0.5588287268926222 -0.9602313602954133 5.691599524722724
-0.5863097282775833 -0.9717460444395906 5.685894543631904
-0.5593659809709188 -0.9933902009936855 5.697398516678305
-0.6521576609506566 -1.02155941855322 5.69932106729101
-0.6461125530846894 -1.0237584836692284 5.699475502241574
0.3291361696798718 -1.017446591253632 5.6202856999452555
-0.6688533267577634 -1.0461007076989584 5.7040634619849016
-0.6771134888902519 -1.049365165217502 5.706699431310312
-0.6009303327205286 -1.069747845884239 5.690600708070876
-0.6051789050045492 -1.06976936561644 5.692353513851014
-0.6152790486626704 -1.0750062064943962 5.694028377402414
2.0283260640164866 -0.8021698007667196 4.2523377808927885
2.3585239102696045 -0.7983792749987758 4.214207397825596
2.021572704052723 -0.8076385819494752 4.2506679654195345
2.0130549668854694 -0.8256618234699666 4.242074429273139
0.2347163155476746 -1.109711011835181 5.643474234737963
1.717708933813813 -0.9641499919185712 4.911259270948962
2.0527521587760864 -0.8256963778891517 4.208836612044409
2.0256519076337107 -0.837162161108686 4.23468996750502
2.3229446644906706 -0.829556183093221 4.182166568983837
2.023069826652134 -0.83906790545424 4.223264549388912
-0.7775206615041188 -1.213041464028758 5.560289987703369
2.60612750165911 -0.9318056121351298 4.272585335664143
-0.7663684337798327 -1.2212983313208219 5.551174497738646
2.5617592674955447 -0.9464307531134237 4.255637183675424
2.695077682501325 -0.9546185553530588 4.274357652846457
-0.10978339568011548 -1.0074530293194233 4.37245874590211
2.663238159151856 -1.001924826392965 4.2311239149220645
-2.294610925005127 -1.2291462828610682 5.129967347888589
-0.3494244710492603 -1.0367229958334225 4.302045218034543
-0.34586367236422966 -1.043655148260163 4.294871578891107
2.102859271958654 -1.0068044926057178 4.164717054844559
2.260840877932267 -1.010172199390995 4.157235938529822
2.1115585319327614 -1.0160497765225207 4.179133277714577
2.2495278135494727 -1.020560823464057 4.147169871486703
-0.6380609113252285 -1.374007746710753 5.542597377159033
2.0685808200420532 -1.0672752907674874 4.2765779816855165
-2.8953910722903964 -1.0795734575241105 4.308603079303611
-0.6048294222550745 -1.395734571894716 5.543188315534824
-0.612759197297981 -1.397590349859063 5.5438113993956994
2.073974213962999 -1.0745401704485196 4.2816066561762485
2.1412523507077528 -1.0546900357714595 4.152426486305259
1.745826160362398 -1.1042175966746652 4.230708663473562
-0.14532683953055037 -1.1672694548081806 4.324576367351171
1.7538460740467812 -1.1442769800433965 4.222222070648776
-0.19272542000314688 -1.1778044292522718 4.291943921824424
-0.23932019137240557 -1.1824654630446103 4.286241474321425
-0.24681157449248756 -1.1941589183280108 4.285047221489984
2.075484614341477 -1.1669760250160148 4.186642150541062
1.012002471938119 -1.1374551934384542 4.06414506505671
1.032956543850703 -1.1472793657213893 4.079518631059562
1.035980198422603 -1.148885518209562 4.0801773562395764
0.04551283118242758 -1.2679873445153904 4.493992864448938
0.9706438729794161 -1.1407833798939682 4.046567901316808
0.0866959792985061 -1.271258787284009 4.495621687180578
2.1595891088705055 -1.1640431007857566 4.130386812379875
0.9934438251750007 -1.1531395073695911 4.064245272571611
0.07246979419917733 -1.2853155496206041 4.501813257395357
0.918879969036588 -1.1591515013764033 4.056577129195866
0.05982365164271893 -1.288413323647359 4.499694530431612
0.086699336244474 -1.3003631727672436 4.4991982420400065
2.1754354779034584 -1.2151563644467671 4.125607519254293
2.149342063248874 -1.2194570528483961 4.13881066537509
2.0271747063969423 -1.2380900032447335 4.198653051909934
1.2645879283939814 -1.340369979926415 4.525506093360727
2.13664656431027 -1.2321081809452963 4.153504451782955
2.042055545333628 -1.2463832179179566 4.199533564189314
0.1272462591490268 -1.3525315432735758 4.530349074244131
2.39155987390116 -1.2408065178057213 4.147045957622546
2.034737672820216 -1.2540863422009383 4.184407458139524
-0.16095249756725302 -1.312598017192288 4.331147350036474
2.2383093207642113 -1.242340777564585 4.119897331224022
-0.16791551157154017 -1.3089659733198735 4.314003963878874
2.167937707275926 -1.2507601582350758 4.127835653567783
2.30494824787449 -1.256499749068193 4.121325705375674
0.8282314887457956 -1.2177355113029296 3.9384075387436535
0.8295949691270808 -1.2205939847582086 3.938234348252186
2.2941728836793622 -1.275394892348556 4.112368821182291
2.280026204215504 -1.283681652913483 4.107659659512959
-0.22468205729882015 -1.3463222486407564 4.264935440665605
2.277024983727318 -1.2888803117186323 4.102378456257226
2.252670675475179 -1.2969716570678613 4.089090137194452
2.1762368920063158 -1.3012994204149053 4.097986580511031
2.2384440893266655 -1.3082815178352445 4.102207454055735
0.9703215537554694 -1.2988863220128077 4.041610869262381
2.0616669399093692 -1.3305502682341912 4.142890925845163
0.9482645702949012 -1.307811762170117 4.026667266235801
0.6590590708919697 -1.4366096601289944 4.419699013105368
-2.8152527566145347 -1.6114893398830197 4.889602325699897
1.0862537073270155 -1.3210440331013005 4.005212947806665
2.094466917253687 -1.3560030488935821 4.119759758416869
-0.14448244612962957 -1.4270183550243043 4.295954672651944
2.11258013326737 -1.3610871991462212 4.096607656491018
-2.804624940666032 -1.6901490041295872 5.0570971079619325
2.0886128901939167 -1.3756419255034795 4.12247736854843
2.0569446520607366 -1.3785550361268792 4.12228824515566
0.2849007870109699 -1.807644720850119 5.372165706833886
2.0541196020106143 -1.381353622122933 4.122445849912929
2.5831501199991878 -1.412999845504706 4.216593278637461
-2.8093922953866 -1.6850829304992094 4.9801732581870395
1.0916653786256083 -1.3390306388978024 3.953917959522881
0.34469363875367365 -1.8206059713454175 5.361329752598146
-0.2419033963305102 -1.4129733728296439 4.148503877228055
0.9785381037367381 -1.3703067879304642 4.013033219435814
0.9637643782818026 -1.3725376612124496 4.009801528288253
1.8380356978120769 -1.4697572816491857 4.25366686286257
0.9689718760688126 -1.3902173438447076 4.014718852540404
-0.12979351850993212 -1.4650390247711722 4.16454882264687
-0.22127471745709532 -1.4590502513627985 4.144492542171746
-0.1384315129680002 -1.4652401435506048 4.157798033691197
-0.12385051317889575 -1.4733313386099758 4.160167555686284
1.0321943718285775 -1.4342831588525167 4.036998066529815
-0.10345464899384933 -1.4839979023484853 4.165552409508156
-0.09331107037653984 -1.491026369074049 4.1696187805518665
0.9427277034659368 -1.4442733151146963 4.035451097024235
-0.031702395655527585 -1.5106005383051313 4.172677338876262
0.853015964370838 -1.486236671393644 4.027174295967554
0.7814095863398492 -1.516602693256658 4.103336985576094
0.034475064113749114 -1.5470399464450315 4.176422007942183
0.8517007534784606 -1.4923669683309715 4.027394251057605
-0.18974802187220374 -1.5319307763180265 4.126059403999499
2.138717813832374 -1.5292857464916227 4.120694005557842
-0.2133501112328617 -1.542712939312273 4.132121076665009
-0.11606036644985195 -1.5499958621441643 4.14063038006676
-0.20916638888960357 -1.5486751112957158 4.13404720348944
-0.1844595459680606 -1.5522495362716542 4.135677691365651
1.9254074869864342 -1.5819875023265098 4.2162121334293845
-0.13512673275421655 -1.5634823332799932 4.1449429654542005
0.9251196740660467 -1.5005576700365515 3.9792085409809155
1.9394335127313698 -1.582660778691903 4.202032318156729
2.3360232855788303 -1.5988105518739961 4.116525098806508
2.1236509294480466 -1.6317478638661114 4.136676979389486
1.6587383428742106 -1.824026729053372 4.598254559445294
2.171097331995764 -1.6469744760579617 4.117297626770943
-0.08629480393998107 -1.7889444289897878 4.318357629935679
-0.06810173847141231 -1.8609075004826103 4.323620154881115
0.744181175858437 -1.9152453553955087 4.427807435877077
1.0856914240764948 -1.7514994792687628 4.036146881379502
-0.29242490516395336 -1.9194454541575139 4.353940809107676
1.1112315171044556 -1.8160021952956968 4.027772042272272
0.518300036316961 -1.9510324377025772 4.236185800918541
0.5150303334892716 -1.9795593455110505 4.246219406591739
-0.9399922466746581 -1.9907364537271266 4.104684667638931
-0.7513524086368576 -1.983255505283802 4.068429021959071
-0.7781434418871188 -1.9875028890075668 3.992790300126111
2.7898161248241644 0.652263704366461 6.173990322168372
2.7852943962283785 0.6456911021548885 6.181205073537587
2.671753638829091 0.6473289423520214 6.19929762682685
2.62274872262765 0.6469973053304056 6.19379241859997
2.7742342468461407 0.6394646565529626 6.191192663066136
2.632335022403432 0.6378691834457574 6.179824578352645
2.6831474887603046 0.6375842276406432 6.20174962979991
2.6541760229514715 0.6355631120280684 6.182553863027218
2.376545463957125 0.6343576847564817 6.214441758306061
2.3493558017113636 0.6326684668250315 6.204319521884444
2.6575436654052464 0.6271358489480933 6.178283445057401
2.3041182399488487 0.6354720550270997 6.244200269337678
2.665539970236618 0.6258415580354495 6.185010160368953
2.5783542734092584 0.6261074729716922 6.192841663811622
2.6493254539980677 0.6243607539716663 6.201366336026808
2.627720464026078 0.6240297429193759 6.199292707105082
2.56898672846531 0.6207732556072867 6.18904328639505
2.455118459055465 0.6225546185835669 6.208847985479473
2.774671687130504 0.6173496624302713 6.21497442937424
2.327815535964798 0.6171434291083767 6.223372518048278
2.4204470592750664 0.6128462232605968 6.206835570788607
2.399488164272812 0.6109592618097671 6.213163007445776
2.6378141926484124 0.6051501367364626 6.1865873231418345
2.3462462064050618 0.6082466866401756 6.210078013748809
2.7816201406007055 0.6014466888537624 6.184245687844063
2.618900241039101 0.6033877193835908 6.202838166217728
2.6052131728877974 0.6032941201987085 6.201147047241793
2.4183987674410163 0.6055652470650726 6.214831890205136
2.6428662663307527 0.5969090995106399 6.186168096749482
2.3901845228203498 0.5986980389748002 6.202259300339105
2.3213628269947044 0.6010834025413181 6.2199872226860276
2.7007367423383064 0.5956534289317609 6.194503405833378
2.711689358671366 0.5932409049436103 6.195878804924096
2.6477222425598543 0.5920010206039653 6.191400092641307
2.6576109423383762 0.5905555108389607 6.190642350447391
2.39693316396388 0.5930963560774588 6.219902297400993
2.4569994560410247 0.5902579754466577 6.213811092806087
2.353787837139077 0.5907521885738162 6.22964040024854
2.6942752984046945 0.5848568825117564 6.1972924684333535
2.5274517786716677 0.5845543533006023 6.1948804309013035
2.7356077815373805 0.580803640942714 6.185271272762924
2.471889807539179 0.5824605684843341 6.21840690396502
2.75621183324238 0.5768998572297869 6.185439813988408
2.781628868223285 0.570805653481751 6.178689856121894
2.760834208749738 0.5693338234578422 6.172350912215219
2.6242182033133634 0.5722563364130644 6.191131706190137
2.4632922408031237 0.5734214905288816 6.209714017259239
2.803331074292712 0.5686341344112907 6.192213706601665
2.6271175799514763 0.5705314672164252 6.2099792313323485
2.5887152829686664 0.5702936752034695 6.2051316286480676
2.635458340891347 0.5681177079534886 6.2112906181610255
2.4623422816067766 0.5690863017604185 6.220402918242977
2.7580583336621607 0.5636821572787643 6.189386844645536
2.659339854982396 0.5624401823387151 6.18217903099536
2.4642842016731388 0.562563912712396 6.205614755257901
2.3890045177730523 0.561516967167272 6.226054720660638
2.7268176709934897 0.5545985824058837 6.171406509666545
2.788831789976173 0.550971496212774 6.171466943172213
2.783470247206594 0.5499966187878644 6.188219471208179
2.7124108115782226 0.5465667316660306 6.203165708625918
2.4466207019214328 0.5442173885572713 6.206820092582026
2.6415974090731575 0.5409456994843381 6.201177172751026
2.5709823339323687 0.5355984963600839 6.137876437264108
2.416060959305732 0.5414535845130563 6.201837999066716
2.4597101314177294 0.5378697676061247 6.193954017452393
2.7634129524540074 0.535711626900114 6.195528646942574
2.7237934386155542 0.5315923554910232 6.176144371625645
2.609409737397144 0.5285052115201189 6.198801912018738
2.65327073895939 0.5262376667655824 6.204354308801119
2.4630394850422745 0.5256277619626013 6.19594065146336
2.6640808095531976 0.524011437618384 6.205440417897642
2.46391801433594 0.5172754619539542 6.191553877423754
2.5573120122747692 0.5150212411248182 6.2172456263212945
2.6262759917188427 0.5064083927141123 6.189480904003307
2.6098992615023797 0.5063433994708346 6.187495749441596
2.589915586345426 0.5003831451142348 6.201774000167583
2.4467355244386546 0.5014085266141453 6.213855024716826
2.4235494932012567 0.5016762532334109 6.227575056364634
2.6399512092730446 0.49702413662296424 6.191414842030562
2.547117802392468 0.4967181068232279 6.198400783416892
2.398390449687366 0.4989736128843478 6.223277577574219
2.802068988571057 0.4938313766092933 6.189411861202629
2.4626350628848694 0.495159086205254 6.201455441113968
2.6814758825072555 0.49182576984164833 6.197519384444226
2.330219959341542 0.490576742026825 6.215321356782537
2.801016051923716 0.48547457680064204 6.192565461083124
2.479036179865268 0.4883456456145873 6.222852815479002
2.434354487214109 0.48799775433021964 6.215281774699801
2.677574562818324 0.48344952810979425 6.200246540618242
2.5874805186290515 0.4831684302497981 6.189523036212878
2.6177823272773004 0.48276512434492297 6.21240131772497
2.4365057472305955 0.47921486189637996 6.200911432343221
2.6289844398827507 0.4751701567648473 6.189659940825403
2.4332482780792075 0.4722032225409312 6.218940283453647
2.6711862329702822 0.46477852333077024 6.185583698166904
2.6277133992253283 0.4660153384738233 6.193011318617755
2.4101860024179267 0.46572058006084804 6.199852863649472
2.3400313667179904 0.4594319132422181 6.220483272583405
2.709468149378631 0.4403169749267475 6.178353380796772
2.7172370532800714 0.43430115680266884 6.196190342497317
2.6439177080944956 0.4342444302435264 6.18837377573616
2.674091505150578 0.42935935473775416 6.192351636261765
2.6616571275717584 0.4283449260316632 6.193234267271339
2.5996327185137345 0.42127850484134965 6.23711135196033
2.580061589639028 0.41863971428663493 6.202518141237221
2.3975585878423127 0.41439051192518067 6.20744508921604
2.4424404977242578 0.41219147523360344 6.2157566360275
-0.2773432374376599 0.29810977997992055 5.210045905878156
1.36902261703062 0.25754983429339645 5.112219652848297
-0.3233811634085556 0.22824975864356062 5.169208806847222
-0.36499558321505876 0.204304129317102 5.168737209807314
1.5663950105807214 0.1927903205711976 5.082800139056298
1.5556321442162382 0.18985984771814232 5.082240625575057
-0.38511349766549013 0.19370635317612397 5.173857685261093
-0.3953092834376281 0.19330888336298258 5.163778533637558
1.6656474023944248 0.18417267245325172 5.092195169012715
1.5590113772764604 0.16667005439685997 5.08634311020279
1.6939425969837507 0.15829860398643228 5.099926540688597
2.362372894959509 0.19148355981403117 6.224299099436493
2.728090725975542 0.18233153951900766 6.191203319815536
1.646317564279139 0.13314772057464697 5.085513726741294
1.5270796288691828 0.12406118123134935 5.079841320428642
1.6348822640474143 0.09662996357758345 5.089719737588882
1.4556718371486888 7.358451352821173e-05 5.01783490423655
1.6010135577221045 -0.035909676972403264 5.010378929156314
1.6819712324384266 -0.04882173346994912 5.025816934444275
1.6696739945147447 -0.04992117587197654 5.001921147579576
1.5356355117752658 -0.07522197582898126 4.989783909027695
-0.35269907131602657 -0.07863328930349085 5.1496105837835575
-0.3009135703417027 -0.08246653094327736 5.158868835637682
-0.284976906406385 -0.08504860427105919 5.148849195211943
1.5863762752582882 -0.0838689713098259 4.984313124972071
1.547256561065457 -0.08336936910316485 4.986758293257218
0.2700417841283928 -0.090114920615217 5.3367447192755355
1.5371692627133111 -0.0861701721588477 5.008411431428203
0.2778354274143727 -0.09884596569792027 5.312456291989252
-0.7628695422742285 -0.10270608636510586 5.393963555562317
-0.2387779830611718 -0.09995086592314528 5.1408784253400635
1.5384288973750462 -0.10039142022698759 4.992098375149795
1.8708466207005672 -0.11664832929436031 4.984455326065242
1.1990863892786747 -0.1136880307290023 4.653476219657997
0.23916275580089646 -0.13425308633505653 5.303765472922789
-0.3874575116719702 -0.13573205393973464 5.176375081784664
-0.39082228545023295 -0.15585283931763264 5.1919598308525226
1.641017876061229 -0.15030174093403936 4.9724040837412815
1.6767957680772019 -0.16484447777738398 4.979574624728964
1.5188580878457318 -0.1660053758909705 5.010794124712138
0.16146321798571944 -0.1774204611319331 5.26184907776134
0.15282186712376436 -0.17802737558379902 5.269921519313238
0.17104732721911697 -0.1805936711559563 5.2813316567755315
0.1733017078561757 -0.18481846854961398 5.282947778887599
1.6658482295579438 -0.1770267628054866 4.965622367225867
-0.28871983130413015 -0.1858685513915862 5.176846233951169
0.17570430150250915 -0.19858926343002872 5.286961726492194
-0.39363722919619587 -0.20589631722497248 5.199157957270006
1.5133783064703177 -0.20017780405770635 4.972139875143228
-0.23404943704306375 -0.21451634683443707 5.181561096844474
1.642751778990229 -0.21453004927247532 4.952469299720029
0.06760436003901624 -0.23217266551753915 5.244662633480605
-0.39170753441341594 -0.23271408059803775 5.203376361182008
-0.27580449142326136 -0.23381191088514328 5.181043782673252
-0.2653414771865423 -0.2365208242712761 5.191355725640137
1.5998516220781245 -0.22541196585005127 4.936035314849651
0.08557766718370595 -0.24577851955683314 5.25936404589127
0.15594712865014507 -0.25876193012758425 5.304593617430138
0.14000144641671167 -0.25858033256565927 5.2951806176041885
-0.3160647213966957 -0.2557220045130179 5.1919135413640385
0.217322004793945 -0.26639272387662666 5.321537632591432
-0.2938193794466686 -0.2604112392696716 5.188845056516635
-0.3629678328585069 -0.2609040715395379 5.202104295618258
1.893972089120735 -0.25631163859331607 4.9630802297503775
-0.2214915039258509 -0.2740402570284703 5.195603796730603
-0.3668335919139032 -0.28500674508544926 5.1950504539406435
1.724113430084075 -0.2729566473605571 4.971713347919442
-0.256919553373961 -0.2980593068543831 5.198699242054872
1.5627455272575996 -0.2858063269113009 4.930168388856593
1.5347924789013283 -0.2860815530900477 4.933546848825589
1.5202627002598326 -0.2901931369669816 4.933544108258481
-0.24198764125532213 -0.31218468884455547 5.21017011738778
-0.2681721917532836 -0.3114205467260399 5.203079044360704
-0.2771206493647962 -0.31358842495497063 5.205075859267961
-0.25323886842946564 -0.32333904224296195 5.2142253385971635
1.5440449130011982 -0.30539123574726 4.910266079067721
1.4844156666171708 -0.31023208653239387 4.959525454027218
1.5115821177511142 -0.3111179012066714 4.946204939022194
0.14290875274871448 -0.3361003311318719 5.320107969391007
-0.3354071289862961 -0.3300256095213711 5.219544228582177
1.4816929988877399 -0.31978387774615163 4.971212960662255
0.19059499848887168 -0.34772921468849366 5.331247533775062
1.553563002660585 -0.3408307947300046 4.856284574178663
-0.08628369560663986 -0.3709417947680238 5.273166435159502
-0.1129292135369481 -0.37520696074472315 5.266660280699723
-0.05733781235194866 -0.38334619864578423 5.286735046280489
-1.8148798091274887 -0.3714482134544784 5.096448307565555
-0.1171203207004051 -0.3847877740652573 5.251837994840432
-0.6971845347694392 -0.4768968213132798 5.363781673891105
1.7031617668330812 -0.42321863495139617 4.734257628280885
1.385284407858532 -0.4466240684571777 4.742021391910077
-0.6564525019530314 -0.5108809763087084 5.365409861471725
-0.6656824736835932 -0.5130512216856203 5.366287124052479
-0.6842070133897322 -0.5163927868624261 5.3696066914160605
0.19259438254856143 -0.5242980863625715 5.387284666143094
-0.6499143275467165 -0.5294921179061213 5.368082530779115
-0.670682170659989 -0.533799793633242 5.369951453914199
0.21061805136722853 -0.5416219787462893 5.382881244829164
1.4748643206001808 -0.470286234311907 4.666232168063405
-0.6754589900488256 -0.542987984193457 5.371704132226623
-0.6053275898994883 -0.550249245878946 5.396432726052219
-0.23879191517715626 -0.5679658048149533 5.386928403909236
1.0436778082210898 -0.5210188107015099 4.902560557672371
1.5556594870985854 -0.5030220238607825 4.626962761059588
1.0201564408422132 -0.5395289711936071 4.878902855075668
1.5629690713449815 -0.5155530038418153 4.614051034515791
-1.7879263201361724 -0.6687158934313522 4.93401951886184
2.083279942523776 -0.659658362376577 4.840203680537785
-0.7518907295066003 -0.8895674483873955 5.692422774660247
-0.7520500772933845 -0.8969839401342697 5.693676519504515
-0.7758063352295441 -0.9008753719762135 5.707920964119088
1.5641558647939284 -0.7829659383589987 4.9570432400629345
1.544228969484888 -0.779926810984015 4.926873610761354
1.5656560907328658 -0.7885413349410106 4.955435191537677
-0.15244945148637515 -0.9011472674595457 5.64799746184294
-1.608532334251578 -0.8438204606984752 5.261719178961292
-1.8367970207855098 -0.7821535549796214 4.827672781864088
1.5530422751313535 -0.8102739472491326 4.948616840841114
-0.58973509801612 -0.9410518422953812 5.687118439339559
-0.6051935196936848 -0.9436933898727312 5.69766699831908
-0.5854166263405668 -0.9734051701627965 5.692474008799728
-0.6548093829771311 -0.9889078758912886 5.687142577307349
-0.5603534123140711 -0.9959434140673901 5.708365784122467
-0.5896591397094098 -0.9954492043739404 5.709983699745051
0.3225335701149928 -0.9978880336876623 5.630495263024032
-0.42377758756273587 -1.0161000183668227 5.6918336785813946
-0.6449074783135956 -1.0261765534495542 5.706554033170602
-0.05037096306833004 -0.9904400006292814 5.471564614538796
-0.6757690741678689 -1.0680152931005202 5.701308532326233
2.0234405484916995 -0.8081065456449502 4.253365378611477
2.042296324211343 -0.8136403234675215 4.226321655004934
-2.900733512356237 -0.8342090437657023 4.3215635771748016
-0.6351100130760852 -1.1121446553847547 5.705304921537101
2.02265783734392 -0.8277796954034935 4.2444125624968425
2.0277561354258866 -0.8369038432303038 4.236637025553902
1.7476584131760173 -0.9886776806788066 4.942694554913538
2.024361209117005 -0.8534469309892454 4.229603823610414
2.0292024820024968 -0.8575081423579359 4.199656340391824
-0.5282796301467722 -1.2365547827434042 5.701246972390628
2.040882943126026 -0.9040803210933449 4.1880768165088895
2.611757445909518 -0.9226777707796604 4.264664140846275
2.6080585474567073 -0.9316681125628106 4.276329869045161
-0.765349856079579 -1.2196269701798494 5.546716072127984
2.564040614353913 -0.9318985149521606 4.259519969457522
-0.777663274240544 -1.2281485743872282 5.566971117292447
-2.8572792858960803 -1.0548493954865206 4.522858188191317
2.6823989357367077 -0.991177148246001 4.241360663929416
2.658616279834506 -0.9946667655980679 4.240205519339893
2.1050239126932984 -0.9774113734372758 4.1497748655454725
-0.24681621298622897 -1.0166549601922144 4.290883332504715
2.654054631921026 -1.001374628137814 4.244159004055296
2.6629808666710253 -1.0014338749121086 4.230162360308761
2.1107330331643053 -1.0041748119883178 4.168125766918031
1.6541635281600426 -1.0189884638534537 4.215805253189802
-0.34501138193604647 -1.0426373011381636 4.292225097697193
2.1058321208822974 -1.0075873597382552 4.168857566815276
2.103111510189705 -1.009286979267856 4.177387688299045
2.2391450925392933 -1.014207407369783 4.15502098035872
2.1779310925771433 -1.0119760328964413 4.13743529970749
2.1551519754887476 -1.0186243759823939 4.163364137564391
2.1452155212930633 -1.0186004548349372 4.164392033623245
2.122917738114667 -1.019710312764293 4.168327996517423
-0.659824381610628 -1.366453215810351 5.548347351682333
2.2536493731771596 -1.020621760658275 4.153058086287336
-0.6370384763838141 -1.3720190032285104 5.533919584790191
2.2457554891827116 -1.0258206552250306 4.154632941408846
2.2093966574048736 -1.0265481641002212 4.1544832341490086
2.1375772646172075 -1.030043536220105 4.159628073310285
-0.6538358945083602 -1.3806879322723589 5.538075534975249
2.1413826401743172 -1.037111617602566 4.167072899216777
-2.891285344369428 -1.0781049171047525 4.303927219971219
-0.34662158565615064 -1.08321861730585 4.2893366434044005
-0.2423186912875469 -1.1003730483729615 4.244227996527645
1.7466924114462783 -1.104356281852939 4.231264080123266
-0.16765264687345605 -1.1381273185128886 4.312183246312857
-0.6151472729760014 -1.4759830754146157 5.548351870232711
-0.6169060711357819 -1.4694433508115479 5.522489761910248
-0.15335112719722188 -1.163519008662787 4.319723972560001
-2.8288726218310813 -1.3084283568324118 4.865980749393247
1.7539055371171242 -1.1446986283788698 4.219557899396217
1.6057582392692593 -1.1489999928944703 4.205956022505463
-0.18731472917931805 -1.1826707162741128 4.302493722327447
1.6345262707488009 -1.1553125752834346 4.198706185710946
-0.2462578872274145 -1.1922562937933525 4.28054392131548
2.1554848179419226 -1.153912892497217 4.145188043279555
1.7396120253976353 -1.1786888836781697 4.219306935824168
1.0155875857001138 -1.141643836041615 4.0763003104177855
2.157105112659032 -1.159415979804624 4.144893702809859
0.9301434489981083 -1.1403542445804418 4.048380709150141
1.0264681553629436 -1.150724770965917 4.078853186585768
0.08778439680771016 -1.2720842876235492 4.499248367634703
0.9361293144829274 -1.14739343032312 4.05919138470199
0.03818470986309759 -1.272719828568307 4.496389525722331
0.9416597083706926 -1.1470748413951437 4.053942423332037
0.07255949961831404 -1.2787649387362339 4.504455677540047
0.08577849088942018 -1.2778542904866226 4.491945002031071
0.06292196063858049 -1.278759352889232 4.498163178865072
2.0636702545598005 -1.1895185050424026 4.201292934559089
0.08588070059490231 -1.283808342029803 4.5012069727065125
2.072665832996536 -1.197935676643123 4.2020112966231435
0.07262470339623166 -1.292946319465041 4.50685288031494
0.005925074288467896 -1.306883316154045 4.494304285195462
2.205909051892655 -1.2090711936372496 4.104343219286228
2.1484056813552437 -1.2209392080032537 4.138861448821282
2.144928011343357 -1.2352187747472205 4.16220900945039
2.1897409353379413 -1.220902950023916 4.102959007129999
2.039199599329509 -1.2552692979386553 4.191164415409578
2.251507060241566 -1.2491174394245474 4.128372051576998
2.004215306525545 -1.2791955037599136 4.195111842481599
2.09139680652605 -1.2681112574280022 4.122146811343566
0.7963000253452267 -1.216407433775268 3.936344584377091
0.7933059125368195 -1.2167957371734859 3.938070928256854
-0.20598872308111663 -1.3306304029317353 4.2731448874293365
0.13777690519277694 -1.4088846052402593 4.519846443686803
-0.21518311251346017 -1.3327239473490633 4.275145946854369
2.2961725950215746 -1.2764537919603298 4.11295861328838
-0.19366385015783852 -1.3427720690704137 4.278958658476978
2.653453729047946 -1.3256038128639798 4.243618487331291
2.106473331129791 -1.3094242988339315 4.1216009742212965
-2.8021568068525107 -1.620583080616379 5.051644049714807
2.05982326593462 -1.3283818842365864 4.131686462145716
2.0472105722908474 -1.331624011310065 4.141003670398474
0.6663271539763316 -1.43876852651479 4.430111640172552
0.6598147078203511 -1.4367807489332403 4.424089827684981
0.6523917172595595 -1.432862120398052 4.411634558140739
2.147371666692449 -1.326859408449662 4.09158050859568
2.1107026387937116 -1.3370069546655075 4.116669200541579
-0.3897403730685517 -1.3511124236703094 4.130049666675196
2.1163987029802542 -1.342749639762076 4.12452800707634
-2.8201582866415427 -1.6209750948970634 4.9228363734770655
1.0865142528931073 -1.3208428078238301 4.005916791094206
0.9614250250764613 -1.3228996067882572 4.011191880622392
2.138855637598153 -1.3534010469862767 4.078807169018737
0.37855332665896285 -1.7989929672958236 5.361878116631665
-1.9157261967653365 -1.7554377871030225 5.173016639247525
-0.23188787592387422 -1.4148360473905364 4.1528075804832145
2.717559527150551 -1.430723848054197 4.209990492834231
-0.22818738230672447 -1.4216933657750803 4.148405669302466
0.954469343651786 -1.378481576235982 4.011087314780524
2.7533160821196527 -1.4415207586386112 4.210193467142085
0.9310638263158493 -1.395622786356792 4.041615902801852
-0.1917424423066298 -1.4377692103854458 4.155840303566764
-0.1741894090969975 -1.448069799996641 4.158710601700204
-0.2572188591868614 -1.44107575627317 4.1348129208299556
-0.16190684658321583 -1.4567166920172385 4.1589030045123065
-0.13730768294785 -1.4646033200855224 4.157719307201624
-0.10751400406313874 -1.4800697376801168 4.161837134678553
-0.09359167053905161 -1.490068049955027 4.166342153895012
0.9425367351356461 -1.457415348195492 4.041242460215291
0.912519099125304 -1.4631746269884072 4.051142122734421
-0.21015958611345859 -1.4977536611174687 4.1380708028771975
-0.2523950038693883 -1.5120343184662048 4.112069834188468
-0.257216512571513 -1.5114529679474185 4.105774011921683
1.1728411457860612 -1.4854947796707367 4.027703460825768
0.8008549237434701 -1.5072604725641685 4.082380480037942
-0.11424959723010483 -1.54091355492128 4.147923517957471
-0.2061659026526341 -1.5398798987231348 4.126625583730963
-0.2097446447609279 -1.5455535371394862 4.128114940684972
2.157835262456672 -1.5318710179481225 4.096554815092946
1.8296890616747656 -1.5833359838802086 4.224300675942691
0.8291821125122832 -1.5346956473538227 4.028597965698252
1.8178424321940272 -1.6125770412170712 4.221640992073589
0.8084565208753046 -1.5474097066791497 4.019050739196619
1.8047143114335251 -1.619531838076945 4.203650306226432
2.33985840294149 -1.6007272420273586 4.121325805755421
2.172535679436616 -1.5835479340724081 4.076278806428785
2.306155563790044 -1.6258394690716917 4.1634575264920475
-2.8881685937613195 -1.6876421574411924 4.273432581948907
2.1286367918619016 -1.6293449836663318 4.126857020657769
1.6561198997746778 -1.8208814317576287 4.591862503612405
-2.885832063788518 -1.7343712813049998 4.233118039825628
-0.06445752517980183 -1.7878883182523517 4.329658360841822
0.8004131742095069 -1.4263246708564221 3.4169802206331745
2.3666402917510854 -1.727686489563986 4.119632638051587
2.3723713358752114 -1.7246854575402717 4.108571153111958
-2.8829257293767694 -1.8101766974580944 4.251642952311925
-0.05715311917179267 -1.8579299196536656 4.3208733942403015
1.0853354002360762 -1.7378829645407339 4.040378455700805
-0.2739744825691866 -1.8918971244803402 4.343886555063885
-0.04621740993904742 -1.8861995446061035 4.32315955779851
0.9069715384390821 -1.766245721039528 4.039650600321777
0.5231081470014156 -1.9486023037552862 4.238193562818148
1.1011320487250338 -1.8491833740974868 4.025659315807247
0.5191654557419405 -1.9505888001646294 4.236144654377279
0.5147347496221365 -1.9735856035202763 4.258548457215444
0.9281311483658694 -1.8695814261175783 4.030480061290684
0.5175546425245839 -1.9830838653947322 4.253120230632039
-0.7431935995346662 -1.9905443744722071 4.033542225615444
2.613315265823846 0.6500497175889345 6.195918940188598
2.5775038633049316 0.64387373716872 6.192153040470262
2.6994191847144853 0.6420111142794241 6.201127752227334
2.6346496477443457 0.6391632915903671 6.180327308854014
2.773236302325145 0.6357265224510387 6.171661538305441
2.663181902446394 0.6356875226940037 6.203537752208658
2.3858673736828044 0.6360209523154359 6.203395937509946
2.3620460522993887 0.6365172506532061 6.206410219630411
2.7134174593603926 0.6249029099558803 6.190340533219422
2.603922470797752 0.6223917116562306 6.195779322400584
2.446720883504096 0.6250631114943951 6.21548690280078
2.456896376751486 0.6222397655590157 6.2175480266781165
2.6953583143509983 0.613837612013819 6.1703547542745465
2.6391413333323337 0.6157103070287246 6.183795239155629
2.3753123702489334 0.6191472081479258 6.224626720848777
2.356810990765591 0.6190588092298747 6.225306923762616
2.6555891934764113 0.6128675953688498 6.185985418711254
2.424889650747739 0.6147940916122068 6.215279150837689
2.3247740701005193 0.6154341605011258 6.215126088824465
2.335039685294564 0.6126455031696905 6.2175150638491585
2.680024718390554 0.6059734627472744 6.191911693228695
2.352059822630404 0.6099519848972605 6.221199608412693
2.7798379143041116 0.5993938850046989 6.179388530652925
2.7330933893294707 0.599240703378866 6.185551924112306
2.376535069862112 0.598325477237252 6.17089327011166
2.311208712691584 0.5984840105615502 6.195645074731343
1.9531009954252334 0.6025949187113153 6.2378654580961985
2.7131488710097726 0.5943371595336189 6.196708484834334
2.6580062580025294 0.5911561842332343 6.191428170837349
2.6100534567166984 0.5880787968227107 6.195466173707788
2.7756568496362677 0.5835526923918851 6.183643953917815
2.465030007495922 0.5866885161250119 6.206436320115734
2.7468790151419977 0.5805646933461442 6.181722717849352
2.7534821806290957 0.5776374541998935 6.182650493591793
2.5879528276734587 0.5778334198421368 6.187164644597085
2.424221180456307 0.5754384930127787 6.181975443373506
2.7859506696393885 0.571797148525406 6.185945125832594
2.7576332243234885 0.5697078629262089 6.164203635590653
2.656000072771708 0.5722143554775307 6.186748410774702
2.406622287247774 0.57309709527829 6.200377888403903
2.611357942654062 0.5691538635632379 6.191180207072358
2.577180760393464 0.5679838681794507 6.206292722137318
2.4642843368161964 0.5638696897841604 6.204272479303308
2.4337933563084775 0.5645633084102947 6.2061618818537
2.6314613906075994 0.5604303928767181 6.1946865964736055
2.598882992485565 0.555156729299362 6.213195717907243
2.5410527140673884 0.5528281319181341 6.186314423913067
2.414968967699474 0.5529176191504013 6.221747548828619
2.789494551923304 0.5392191609388993 6.173036905707488
2.7424231494845928 0.5340956799650863 6.192326457892475
2.719346588060714 0.5303527465102549 6.168515764202845
2.316840930924912 0.5304996747989666 6.202201494569787
2.465453755060166 0.5264442848751911 6.199404591876358
2.6640807101678656 0.524011291607019 6.205440220084544
2.4691854401198237 0.5176307168063546 6.201050580177843
2.532672397075578 0.5115310842680018 6.173416685244268
2.4014425234454264 0.5146796488356139 6.210993096761962
2.763093945899111 0.5105184415283981 6.197104438106848
2.599054737761786 0.5108872313899193 6.206066306474468
2.5426339289218465 0.5122612454823884 6.213060184957316
2.4512716974653137 0.5117053939619409 6.203048271024586
2.804957420859517 0.5065773923835929 6.193394186018174
2.717947397083774 0.507521987937583 6.193441324640859
2.6248536724347127 0.5061003353945557 6.18611970286932
2.4019485345720146 0.5028708100068303 6.2124449358715434
2.65027270670146 0.4991475950946789 6.209435599552886
2.6220232003013075 0.4972536310586234 6.1868610594813935
